4009.370117 7648.972168 3842.925049 -0.568667 0.583156 0.580127
4218.930176 7929.440918 3783.448730 -0.546277 0.592620 0.591931
4482.917480 8049.223145 3885.868652 -0.476946 0.621541 0.621458
4555.029297 7777.873535 3875.355469 -0.421183 0.641272 0.641386
4568.416016 7662.421875 3861.953369 -0.451884 0.635930 0.625615
4466.666504 7532.352051 3772.635254 -0.477638 0.621548 0.620919
4369.646973 6892.992188 3941.921143 -0.549863 0.591401 0.589827
4165.804688 7493.221191 3836.187988 -0.555789 0.589755 0.585908
4208.575195 7346.544434 3866.482666 -0.551731 0.591313 0.588169
4304.562012 7291.652344 3832.318359 -0.547760 0.591878 0.591304
4933.333496 7794.199707 4074.931396 -0.288181 0.677194 0.677023
5366.666504 7752.488770 4236.485352 0.008536 0.709710 0.704442
5580.591797 7660.100098 4274.107422 0.117352 0.701625 0.702816
5271.026855 7627.935059 4167.316895 -0.008290 0.705020 0.709139
4889.458496 7695.421387 3989.832764 -0.277032 0.678252 0.680608
4766.666504 7626.451172 3881.420654 -0.374359 0.651457 0.659894
5131.560059 7542.693848 4079.854492 -0.165985 0.696671 0.697925
5558.944824 7428.597168 4206.919434 0.159850 0.696944 0.699083
5484.875000 7189.482422 4102.868164 0.096932 0.703771 0.703783
5082.417969 7336.589355 3938.072021 -0.188768 0.694541 0.694248
4741.857910 7320.865723 3794.413818 -0.389295 0.662640 0.639811
4155.880859 6211.439941 4021.229492 -0.597226 0.568197 0.566103
4453.207520 6563.895996 3973.348633 -0.530820 0.598931 0.599593
4829.613770 7028.814453 3769.177734 -0.391826 0.656069 0.645016
5169.915527 7074.889160 3914.191650 -0.154391 0.711850 0.685152
5629.676270 6939.234375 4031.990967 0.123412 0.699735 0.703662
4334.217773 6152.475098 3975.194824 -0.668995 0.525793 0.525344
4627.000000 6549.017090 3916.161621 -0.481792 0.622573 0.616668
5170.319336 6892.950684 3836.450684 -0.179501 0.714548 0.676166
5666.666504 6805.611816 3951.428223 0.123837 0.699472 0.703849
4847.910156 6105.776855 3703.392334 -0.874025 0.343567 0.343573
5083.197754 6410.333496 3729.243896 -0.412542 0.648072 0.640165
5469.161621 6543.758301 3771.202881 -0.127653 0.683009 0.719168
5835.682129 6456.692871 3835.113770 0.117087 0.703436 0.701049
6154.575684 6342.816895 3890.825684 0.134377 0.700838 0.700549
6719.379395 6353.531250 3832.924805 -0.064413 0.707124 0.704150
7333.333496 6463.019531 3965.176758 -0.425788 0.640023 0.639590
7338.318359 6837.125000 3929.377441 -0.411302 0.648270 0.640763
6651.006348 6675.917969 3872.208496 -0.023494 0.712361 0.701420
5842.095215 6777.003906 3936.412109 0.178295 0.694813 0.696740
5387.776855 6981.106934 3971.727295 0.005489 0.710293 0.703884
6108.849121 6845.797363 3991.269043 0.204016 0.691760 0.692709
7341.734375 7176.017578 4121.938965 -0.410172 0.646421 0.643350
6678.996582 6964.544434 4075.840820 0.006919 0.708279 0.705898
5766.666504 7153.339844 4145.367676 0.175414 0.696814 0.695471
5240.940918 7509.343262 4119.555176 -0.026330 0.721204 0.692222
5354.417480 7590.835449 4186.582031 0.011965 0.711582 0.702501
6340.872559 7322.916504 4241.699707 0.156691 0.697761 0.698983
6373.439453 7184.816406 4193.568848 0.143770 0.700588 0.698932
7201.859863 7272.037598 4206.691406 -0.344239 0.671250 0.656447
7133.333496 7385.302734 4257.142090 -0.298244 0.675882 0.673969
7613.658203 7834.421387 4143.102539 -0.540313 0.594642 0.595368
7679.076172 7819.037109 4092.387939 -0.541279 0.594511 0.594621
8024.774902 8128.404297 4077.896484 -0.583905 0.577273 0.570799
8141.630371 7783.667969 4165.033203 -0.567008 0.578609 0.586271
7717.412109 7507.744629 4036.983887 -0.532065 0.598917 0.598503
7804.150879 7332.231934 3976.100586 -0.540760 0.597128 0.592467
8133.333496 7441.529785 4199.084961 -0.556094 0.587788 0.587592
8189.136719 7257.324219 4246.875977 -0.546227 0.588379 0.596193
7529.524902 6976.982910 3967.356445 -0.487609 0.617649 0.617047
7041.063965 6741.750000 3897.362061 -0.264285 0.687459 0.676427
8087.593750 6839.742188 4256.692871 -0.556886 0.587267 0.587363
8372.725586 6661.807129 4361.192871 -0.535160 0.591715 0.602891
4848.871582 5746.206543 3662.156006 -0.804792 -0.419653 -0.419762
4982.907715 5522.692871 3666.685791 -0.619292 -0.555684 -0.554701
6833.333496 2338.594727 4247.726563 -0.321716 -0.679558 -0.659318
7115.095215 2228.187988 4258.949707 -0.164592 -0.695490 -0.699430
7417.747559 2182.516846 4271.478516 0.052986 -0.707436 -0.704788
7839.103027 1866.064819 4315.638184 0.177564 -0.693867 -0.697868
7331.529297 1840.745728 4290.415039 -0.043938 -0.707338 -0.705509
6792.574707 1835.496460 4274.036621 -0.364239 -0.668887 -0.648013
6558.556152 1818.588501 4268.064941 -0.482553 -0.619790 -0.618873
7076.938965 1525.454468 4298.616211 -0.215700 -0.690448 -0.690475
6333.333496 1655.266235 4252.485352 -0.582786 -0.576819 -0.572399
6433.333496 1944.069458 4251.100586 -0.507668 -0.614531 -0.603842
6582.520996 2156.051025 4253.627930 -0.447471 -0.640783 -0.623833
6842.494629 1604.805542 4287.232910 -0.322784 -0.671236 -0.667272
6942.468262 1946.295288 4271.891602 -0.290952 -0.679271 -0.673749
2077.090576 2585.751709 3570.624268 -0.589764 -0.566201 -0.575842
2273.041748 2485.767334 3463.506104 -0.582227 -0.576076 -0.573715
2579.394531 2387.856445 3276.770508 -0.493023 -0.622792 -0.607502
2604.206299 3397.790283 3619.575439 -0.428365 -0.605297 -0.670909
2847.184570 3370.218018 3529.411621 -0.294692 -0.683219 -0.668108
3149.769775 3362.736328 3441.502197 -0.132866 -0.701726 -0.699948
2675.324463 3772.417969 3547.549072 -0.410514 -0.645256 -0.644300
2923.749756 3678.994141 3511.404297 -0.301690 -0.674455 -0.673864
3216.666260 3657.719971 3442.514404 -0.085884 -0.716171 -0.692620
2924.755859 3871.704834 3483.802734 -0.303105 -0.674477 -0.673208
2570.097656 4184.378418 3399.674316 -0.466875 -0.622452 -0.628157
